1000.00   0.00 0.000000 
999.92  12.57 0.125333 
999.68  25.13 0.248690 
999.29  37.69 0.368125 
998.74  50.24 0.481754 
998.03  62.79 0.587785 
997.16  75.33 0.684547 
996.13  87.85 0.770513 
994.95 100.36 0.844328 
993.61 112.86 0.904827 
992.11 125.33 0.951057 
990.46 137.79 0.982287 
988.65 150.23 0.998027 
986.69 162.64 0.998027 
984.56 175.02 0.982287 
982.29 187.38 0.951057 
979.86 199.71 0.904827 
977.27 212.01 0.844328 
974.53 224.27 0.770513 
971.63 236.50 0.684547 
968.58 248.69 0.587785 
965.38 260.84 0.481754 
962.03 272.95 0.368125 
958.52 285.02 0.248690 
954.86 297.04 0.125333 
951.06 309.02 0.000000 
947.10 320.94 -0.125333 
942.99 332.82 -0.248690 
938.73 344.64 -0.368125 
934.33 356.41 -0.481754 
929.78 368.12 -0.587785 
925.08 379.78 -0.684547 
920.23 391.37 -0.770513 
915.24 402.91 -0.844328 
910.11 414.38 -0.904827 
904.83 425.78 -0.951057 
899.41 437.12 -0.982287 
893.84 448.38 -0.998027 
888.14 459.58 -0.998027 
882.29 470.70 -0.982287 
876.31 481.75 -0.951057 
870.18 492.73 -0.904827 
863.92 503.62 -0.844328 
857.53 514.44 -0.770513 
850.99 525.17 -0.684547 
844.33 535.83 -0.587785 
837.53 546.39 -0.481754 
830.60 556.88 -0.368125 
823.53 567.27 -0.248690 
816.34 577.57 -0.125333 
809.02 587.79 -0.000000 
801.57 597.90 0.125333 
793.99 607.93 0.248690 
786.29 617.86 0.368125 
778.46 627.69 0.481754 
770.51 637.42 0.587785 
762.44 647.06 0.684547 
754.25 656.59 0.770513 
745.94 666.01 0.844328 
737.51 675.33 0.904827 
728.97 684.55 0.951057 
720.31 693.65 0.982287 
711.54 702.65 0.998027 
702.65 711.54 0.998027 
693.65 720.31 0.982287 
684.55 728.97 0.951057 
675.33 737.51 0.904827 
666.01 745.94 0.844328 
656.59 754.25 0.770513 
647.06 762.44 0.684547 
637.42 770.51 0.587785 
627.69 778.46 0.481754 
617.86 786.29 0.368125 
607.93 793.99 0.248690 
597.90 801.57 0.125333 
587.79 809.02 -0.000000 
577.57 816.34 -0.125333 
567.27 823.53 -0.248690 
556.88 830.60 -0.368125 
546.39 837.53 -0.481754 
535.83 844.33 -0.587785 
525.17 850.99 -0.684547 
514.44 857.53 -0.770513 
503.62 863.92 -0.844328 
492.73 870.18 -0.904827 
481.75 876.31 -0.951057 
470.70 882.29 -0.982287 
459.58 888.14 -0.998027 
448.38 893.84 -0.998027 
437.12 899.41 -0.982287 
425.78 904.83 -0.951057 
414.38 910.11 -0.904827 
402.91 915.24 -0.844328 
391.37 920.23 -0.770513 
379.78 925.08 -0.684547 
368.12 929.78 -0.587785 
356.41 934.33 -0.481754 
344.64 938.73 -0.368125 
332.82 942.99 -0.248690 
320.94 947.10 -0.125333 
309.02 951.06 -0.000000 
297.04 954.86 0.125333 
285.02 958.52 0.248690 
272.95 962.03 0.368125 
260.84 965.38 0.481754 
248.69 968.58 0.587785 
236.50 971.63 0.684547 
224.27 974.53 0.770513 
212.01 977.27 0.844328 
199.71 979.86 0.904827 
187.38 982.29 0.951057 
175.02 984.56 0.982287 
162.64 986.69 0.998027 
150.23 988.65 0.998027 
137.79 990.46 0.982287 
125.33 992.11 0.951057 
112.86 993.61 0.904827 
100.36 994.95 0.844328 
 87.85 996.13 0.770513 
 75.33 997.16 0.684547 
 62.79 998.03 0.587785 
 50.24 998.74 0.481754 
 37.69 999.29 0.368125 
 25.13 999.68 0.248690 
 12.57 999.92 0.125333 
  0.00 1000.00 0.000000 
-12.57 999.92 -0.125333 
-25.13 999.68 -0.248690 
-37.69 999.29 -0.368125 
-50.24 998.74 -0.481754 
-62.79 998.03 -0.587785 
-75.33 997.16 -0.684547 
-87.85 996.13 -0.770513 
-100.36 994.95 -0.844328 
-112.86 993.61 -0.904827 
-125.33 992.11 -0.951057 
-137.79 990.46 -0.982287 
-150.23 988.65 -0.998027 
-162.64 986.69 -0.998027 
-175.02 984.56 -0.982287 
-187.38 982.29 -0.951057 
-199.71 979.86 -0.904827 
-212.01 977.27 -0.844328 
-224.27 974.53 -0.770513 
-236.50 971.63 -0.684547 
-248.69 968.58 -0.587785 
-260.84 965.38 -0.481754 
-272.95 962.03 -0.368125 
-285.02 958.52 -0.248690 
-297.04 954.86 -0.125333 
-309.02 951.06 0.000000 
-320.94 947.10 0.125333 
-332.82 942.99 0.248690 
-344.64 938.73 0.368125 
-356.41 934.33 0.481754 
-368.12 929.78 0.587785 
-379.78 925.08 0.684547 
-391.37 920.23 0.770513 
-402.91 915.24 0.844328 
-414.38 910.11 0.904827 
-425.78 904.83 0.951057 
-437.12 899.41 0.982287 
-448.38 893.84 0.998027 
-459.58 888.14 0.998027 
-470.70 882.29 0.982287 
-481.75 876.31 0.951057 
-492.73 870.18 0.904827 
-503.62 863.92 0.844328 
-514.44 857.53 0.770513 
-525.17 850.99 0.684547 
-535.83 844.33 0.587785 
-546.39 837.53 0.481754 
-556.88 830.60 0.368125 
-567.27 823.53 0.248690 
-577.57 816.34 0.125333 
-587.79 809.02 0.000000 
-597.90 801.57 -0.125333 
-607.93 793.99 -0.248690 
-617.86 786.29 -0.368125 
-627.69 778.46 -0.481754 
-637.42 770.51 -0.587785 
-647.06 762.44 -0.684547 
-656.59 754.25 -0.770513 
-666.01 745.94 -0.844328 
-675.33 737.51 -0.904827 
-684.55 728.97 -0.951057 
-693.65 720.31 -0.982287 
-702.65 711.54 -0.998027 
-711.54 702.65 -0.998027 
-720.31 693.65 -0.982287 
-728.97 684.55 -0.951057 
-737.51 675.33 -0.904827 
-745.94 666.01 -0.844328 
-754.25 656.59 -0.770513 
-762.44 647.06 -0.684547 
-770.51 637.42 -0.587785 
-778.46 627.69 -0.481754 
-786.29 617.86 -0.368125 
-793.99 607.93 -0.248690 
-801.57 597.90 -0.125333 
-809.02 587.79 -0.000000 
-816.34 577.57 0.125333 
-823.53 567.27 0.248690 
-830.60 556.88 0.368125 
-837.53 546.39 0.481754 
-844.33 535.83 0.587785 
-850.99 525.17 0.684547 
-857.53 514.44 0.770513 
-863.92 503.62 0.844328 
-870.18 492.73 0.904827 
-876.31 481.75 0.951057 
-882.29 470.70 0.982287 
-888.14 459.58 0.998027 
-893.84 448.38 0.998027 
-899.41 437.12 0.982287 
-904.83 425.78 0.951057 
-910.11 414.38 0.904827 
-915.24 402.91 0.844328 
-920.23 391.37 0.770513 
-925.08 379.78 0.684547 
-929.78 368.12 0.587785 
-934.33 356.41 0.481754 
-938.73 344.64 0.368125 
-942.99 332.82 0.248690 
-947.10 320.94 0.125333 
-951.06 309.02 0.000000 
-954.86 297.04 -0.125333 
-958.52 285.02 -0.248690 
-962.03 272.95 -0.368125 
-965.38 260.84 -0.481754 
-968.58 248.69 -0.587785 
-971.63 236.50 -0.684547 
-974.53 224.27 -0.770513 
-977.27 212.01 -0.844328 
-979.86 199.71 -0.904827 
-982.29 187.38 -0.951057 
-984.56 175.02 -0.982287 
-986.69 162.64 -0.998027 
-988.65 150.23 -0.998027 
-990.46 137.79 -0.982287 
-992.11 125.33 -0.951057 
-993.61 112.86 -0.904827 
-994.95 100.36 -0.844328 
-996.13  87.85 -0.770513 
-997.16  75.33 -0.684547 
-998.03  62.79 -0.587785 
-998.74  50.24 -0.481754 
-999.29  37.69 -0.368125 
-999.68  25.13 -0.248690 
-999.92  12.57 -0.125333 
-1000.00   0.00 -0.000000 
-999.92 -12.57 0.125333 
-999.68 -25.13 0.248690 
-999.29 -37.69 0.368125 
-998.74 -50.24 0.481754 
-998.03 -62.79 0.587785 
-997.16 -75.33 0.684547 
-996.13 -87.85 0.770513 
-994.95 -100.36 0.844328 
-993.61 -112.86 0.904827 
-992.11 -125.33 0.951057 
-990.46 -137.79 0.982287 
-988.65 -150.23 0.998027 
-986.69 -162.64 0.998027 
-984.56 -175.02 0.982287 
-982.29 -187.38 0.951057 
-979.86 -199.71 0.904827 
-977.27 -212.01 0.844328 
-974.53 -224.27 0.770513 
-971.63 -236.50 0.684547 
-968.58 -248.69 0.587785 
-965.38 -260.84 0.481754 
-962.03 -272.95 0.368125 
-958.52 -285.02 0.248690 
-954.86 -297.04 0.125333 
-951.06 -309.02 0.000000 
-947.10 -320.94 -0.125333 
-942.99 -332.82 -0.248690 
-938.73 -344.64 -0.368125 
-934.33 -356.41 -0.481754 
-929.78 -368.12 -0.587785 
-925.08 -379.78 -0.684547 
-920.23 -391.37 -0.770513 
-915.24 -402.91 -0.844328 
-910.11 -414.38 -0.904827 
-904.83 -425.78 -0.951057 
-899.41 -437.12 -0.982287 
-893.84 -448.38 -0.998027 
-888.14 -459.58 -0.998027 
-882.29 -470.70 -0.982287 
-876.31 -481.75 -0.951057 
-870.18 -492.73 -0.904827 
-863.92 -503.62 -0.844328 
-857.53 -514.44 -0.770513 
-850.99 -525.17 -0.684547 
-844.33 -535.83 -0.587785 
-837.53 -546.39 -0.481754 
-830.60 -556.88 -0.368125 
-823.53 -567.27 -0.248690 
-816.34 -577.57 -0.125333 
-809.02 -587.79 0.000000 
-801.57 -597.90 0.125333 
-793.99 -607.93 0.248690 
-786.29 -617.86 0.368125 
-778.46 -627.69 0.481754 
-770.51 -637.42 0.587785 
-762.44 -647.06 0.684547 
-754.25 -656.59 0.770513 
-745.94 -666.01 0.844328 
-737.51 -675.33 0.904827 
-728.97 -684.55 0.951057 
-720.31 -693.65 0.982287 
-711.54 -702.65 0.998027 
-702.65 -711.54 0.998027 
-693.65 -720.31 0.982287 
-684.55 -728.97 0.951057 
-675.33 -737.51 0.904827 
-666.01 -745.94 0.844328 
-656.59 -754.25 0.770513 
-647.06 -762.44 0.684547 
-637.42 -770.51 0.587785 
-627.69 -778.46 0.481754 
-617.86 -786.29 0.368125 
-607.93 -793.99 0.248690 
-597.90 -801.57 0.125333 
-587.79 -809.02 -0.000000 
-577.57 -816.34 -0.125333 
-567.27 -823.53 -0.248690 
-556.88 -830.60 -0.368125 
-546.39 -837.53 -0.481754 
-535.83 -844.33 -0.587785 
-525.17 -850.99 -0.684547 
-514.44 -857.53 -0.770513 
-503.62 -863.92 -0.844328 
-492.73 -870.18 -0.904827 
-481.75 -876.31 -0.951057 
-470.70 -882.29 -0.982287 
-459.58 -888.14 -0.998027 
-448.38 -893.84 -0.998027 
-437.12 -899.41 -0.982287 
-425.78 -904.83 -0.951057 
-414.38 -910.11 -0.904827 
-402.91 -915.24 -0.844328 
-391.37 -920.23 -0.770513 
-379.78 -925.08 -0.684547 
-368.12 -929.78 -0.587785 
-356.41 -934.33 -0.481754 
-344.64 -938.73 -0.368125 
-332.82 -942.99 -0.248690 
-320.94 -947.10 -0.125333 
-309.02 -951.06 -0.000000 
-297.04 -954.86 0.125333 
-285.02 -958.52 0.248690 
-272.95 -962.03 0.368125 
-260.84 -965.38 0.481754 
-248.69 -968.58 0.587785 
-236.50 -971.63 0.684547 
-224.27 -974.53 0.770513 
-212.01 -977.27 0.844328 
-199.71 -979.86 0.904827 
-187.38 -982.29 0.951057 
-175.02 -984.56 0.982287 
-162.64 -986.69 0.998027 
-150.23 -988.65 0.998027 
-137.79 -990.46 0.982287 
-125.33 -992.11 0.951057 
-112.86 -993.61 0.904827 
-100.36 -994.95 0.844328 
-87.85 -996.13 0.770513 
-75.33 -997.16 0.684547 
-62.79 -998.03 0.587785 
-50.24 -998.74 0.481754 
-37.69 -999.29 0.368125 
-25.13 -999.68 0.248690 
-12.57 -999.92 0.125333 
 -0.00 -1000.00 0.000000 
 12.57 -999.92 -0.125333 
 25.13 -999.68 -0.248690 
 37.69 -999.29 -0.368125 
 50.24 -998.74 -0.481754 
 62.79 -998.03 -0.587785 
 75.33 -997.16 -0.684547 
 87.85 -996.13 -0.770513 
100.36 -994.95 -0.844328 
112.86 -993.61 -0.904827 
125.33 -992.11 -0.951057 
137.79 -990.46 -0.982287 
150.23 -988.65 -0.998027 
162.64 -986.69 -0.998027 
175.02 -984.56 -0.982287 
187.38 -982.29 -0.951057 
199.71 -979.86 -0.904827 
212.01 -977.27 -0.844328 
224.27 -974.53 -0.770513 
236.50 -971.63 -0.684547 
248.69 -968.58 -0.587785 
260.84 -965.38 -0.481754 
272.95 -962.03 -0.368125 
285.02 -958.52 -0.248690 
297.04 -954.86 -0.125333 
309.02 -951.06 -0.000000 
320.94 -947.10 0.125333 
332.82 -942.99 0.248690 
344.64 -938.73 0.368125 
356.41 -934.33 0.481754 
368.12 -929.78 0.587785 
379.78 -925.08 0.684547 
391.37 -920.23 0.770513 
402.91 -915.24 0.844328 
414.38 -910.11 0.904827 
425.78 -904.83 0.951057 
437.12 -899.41 0.982287 
448.38 -893.84 0.998027 
459.58 -888.14 0.998027 
470.70 -882.29 0.982287 
481.75 -876.31 0.951057 
492.73 -870.18 0.904827 
503.62 -863.92 0.844328 
514.44 -857.53 0.770513 
525.17 -850.99 0.684547 
535.83 -844.33 0.587785 
546.39 -837.53 0.481754 
556.88 -830.60 0.368125 
567.27 -823.53 0.248690 
577.57 -816.34 0.125333 
587.79 -809.02 -0.000000 
597.90 -801.57 -0.125333 
607.93 -793.99 -0.248690 
617.86 -786.29 -0.368125 
627.69 -778.46 -0.481754 
637.42 -770.51 -0.587785 
647.06 -762.44 -0.684547 
656.59 -754.25 -0.770513 
666.01 -745.94 -0.844328 
675.33 -737.51 -0.904827 
684.55 -728.97 -0.951057 
693.65 -720.31 -0.982287 
702.65 -711.54 -0.998027 
711.54 -702.65 -0.998027 
720.31 -693.65 -0.982287 
728.97 -684.55 -0.951057 
737.51 -675.33 -0.904827 
745.94 -666.01 -0.844328 
754.25 -656.59 -0.770513 
762.44 -647.06 -0.684547 
770.51 -637.42 -0.587785 
778.46 -627.69 -0.481754 
786.29 -617.86 -0.368125 
793.99 -607.93 -0.248690 
801.57 -597.90 -0.125333 
809.02 -587.79 -0.000000 
816.34 -577.57 0.125333 
823.53 -567.27 0.248690 
830.60 -556.88 0.368125 
837.53 -546.39 0.481754 
844.33 -535.83 0.587785 
850.99 -525.17 0.684547 
857.53 -514.44 0.770513 
863.92 -503.62 0.844328 
870.18 -492.73 0.904827 
876.31 -481.75 0.951057 
882.29 -470.70 0.982287 
888.14 -459.58 0.998027 
893.84 -448.38 0.998027 
899.41 -437.12 0.982287 
904.83 -425.78 0.951057 
910.11 -414.38 0.904827 
915.24 -402.91 0.844328 
920.23 -391.37 0.770513 
925.08 -379.78 0.684547 
929.78 -368.12 0.587785 
934.33 -356.41 0.481754 
938.73 -344.64 0.368125 
942.99 -332.82 0.248690 
947.10 -320.94 0.125333 
951.06 -309.02 0.000000 
954.86 -297.04 -0.125333 
958.52 -285.02 -0.248690 
962.03 -272.95 -0.368125 
965.38 -260.84 -0.481754 
968.58 -248.69 -0.587785 
971.63 -236.50 -0.684547 
974.53 -224.27 -0.770513 
977.27 -212.01 -0.844328 
979.86 -199.71 -0.904827 
982.29 -187.38 -0.951057 
984.56 -175.02 -0.982287 
986.69 -162.64 -0.998027 
988.65 -150.23 -0.998027 
990.46 -137.79 -0.982287 
992.11 -125.33 -0.951057 
993.61 -112.86 -0.904827 
994.95 -100.36 -0.844328 
996.13 -87.85 -0.770513 
997.16 -75.33 -0.684547 
998.03 -62.79 -0.587785 
998.74 -50.24 -0.481754 
999.29 -37.69 -0.368125 
999.68 -25.13 -0.248690 
999.92 -12.57 -0.125333 
1000.00  -0.00 -0.000000 
999.92  12.57 0.125333 
